742	606	511	478	455	426	406	390	452	342	334	430	363	262	201	210	308	496	416	284	203	175	161	138	145	149	149	183	174	91	101	108	128	181	178	187	166	122	115	108	115	97	84	61	31	10	8	21	23	23	23	29	29	36	34	25	11	-1	-4	-1	-3	-15	-23	-30	-39	-44	-49	-50	-50	-49	-50	-51	-51	-49	-50	-56	-66	-75	-75	-66	-51	-31	-15	-17	-30	-42	-94	-96	-99	-103	-107	-140	-209	-230	-365	-428	-437	-412	-336	-241	-238	-212	-215	-383	-221	-223	-224	-224	-223 
696	612	541	511	548	433	415	411	388	238	320	354	191	176	190	238	311	440	305	190	172	170	161	203	175	176	187	184	190	171	130	142	179	168	155	157	160	125	119	86	114	68	35	13	5	9	26	29	26	27	29	30	33	42	38	30	16	0	-6	-1	-5	-14	-22	-30	-36	-40	-45	-49	-49	-51	-56	-60	-50	-50	-50	-63	-69	-71	-70	-53	-28	-11	-15	-37	-91	-99	-104	-199	-204	-209	-215	-244	-431	-563	-651	-700	-697	-664	-600	-560	-553	-615	-968	-654	-651	-976	-687	-973	-252 
669	503	410	449	461	384	333	344	238	214	305	244	169	165	199	226	312	415	243	165	152	175	174	202	210	233	219	246	225	170	158	109	122	131	115	150	128	105	97	79	76	22	0	18	-1	27	30	33	32	29	23	24	27	33	36	31	13	0	-6	-1	-5	-14	-21	-27	-30	-36	-40	-46	-50	-50	-59	-73	-73	-64	-72	-72	-69	-72	-66	-60	-50	-46	-47	-96	-102	-134	-209	-217	-477	-563	-566	-610	-735	-956	-1005	-1048	-1074	-1037	-1015	-1010	-1008	-1008	-1009	-1012	-1015	-1015	-1012	-1008	-1006 
544	384	312	412	348	325	302	283	186	184	193	325	183	157	193	189	287	380	215	139	141	167	209	246	261	248	246	216	221	174	152	110	92	101	113	120	94	72	43	22	9	6	21	29	31	34	37	34	32	24	14	16	15	24	27	20	0	0	-1	-1	-7	-15	-21	-27	-30	-34	-40	-44	-47	-50	-50	-73	-73	-73	-72	-67	-66	-73	-82	-80	-78	-78	-95	-103	-128	-214	-227	-582	-971	-963	-963	-1000	-1010	-1414	-1495	-1527	-1552	-1607	-1957	-1954	-1951	-1629	-1950	-1584	-1590	-1954	-1949	-1944	-1941 
544	269	309	394	282	296	241	228	218	237	155	171	140	151	165	206	428	385	141	120	140	155	202	235	256	209	204	178	192	163	120	92	98	75	104	59	41	31	17	10	1	9	20	32	36	35	34	32	29	27	20	14	12	12	14	9	0	-4	-1	-3	-10	-19	-24	-28	-30	-33	-38	-41	-45	-47	-50	-50	-73	-72	-66	-56	-70	-90	-99	-129	-126	-134	-120	-168	-216	-231	-591	-986	-1002	-1321	-1438	-1545	-1946	-1956	-1870	-1915	-1948	-1962	-2100	-2187	-1971	-1968	-1998	-1940	-1945	-2074	-2113	-2139	-1972 
352	263	235	220	251	247	322	328	260	314	180	157	132	141	147	268	318	310	112	146	155	164	202	231	196	181	152	165	159	144	116	92	94	47	11	17	15	13	16	11	-2	9	22	30	32	31	30	31	27	16	19	16	13	3	2	0	0	-1	-1	-7	-13	-22	-28	-29	-30	-33	-37	-40	-42	-46	-48	-50	-66	-70	-62	-55	-77	-100	-138	-156	-193	-183	-216	-270	-413	-625	-992	-1013	-1352	-1673	-1932	-1975	-1963	-2174	-2153	-2175	-2194	-2182	-2151	-2144	-2172	-2158	-2155	-2158	-2163	-2108	-2058	-2041	-2092 
285	269	274	293	303	362	372	304	352	226	209	148	141	125	162	250	186	194	95	145	153	210	198	185	166	181	159	121	130	101	62	48	13	0	-10	-1	-10	-10	16	11	-5	6	22	30	27	25	22	25	24	17	14	16	15	5	0	0	-1	-1	-5	-12	-17	-24	-29	-29	-30	-35	-39	-40	-43	-47	-49	-56	-68	-70	-65	-62	-90	-99	-102	-195	-199	-207	-459	-663	-721	-990	-1017	-1040	-1963	-1983	-1997	-2228	-2200	-2165	-2195	-2250	-2295	-2317	-2321	-2316	-2307	-2313	-2312	-2315	-2317	-2349	-2322	-2249	-2208 
268	316	318	353	350	327	363	302	269	227	187	145	165	140	195	173	166	114	110	152	188	219	191	159	142	153	134	111	91	47	13	0	4	-1	8	-10	14	16	17	14	-10	-4	-10	15	14	22	14	15	17	16	13	14	7	0	-1	-1	-1	-6	-13	-19	-24	-29	-31	-33	-35	-40	-40	-44	-47	-49	-48	-56	-69	-70	-72	-79	-92	-96	-105	-167	-158	-221	-957	-976	-887	-1020	-1340	-1967	-1989	-2214	-2260	-2301	-2333	-2353	-2388	-2434	-2466	-2473	-2473	-2471	-2467	-2493	-2550	-2494	-2491	-2587	-2585	-2468	-2427 
319	330	442	380	354	341	327	248	233	232	169	171	162	150	187	126	119	93	141	158	207	183	162	163	132	114	110	68	62	7	-10	-10	-10	-10	-10	16	16	16	19	13	7	-10	-10	-10	-10	12	12	9	13	7	3	2	-4	-1	-7	-1	-6	-13	-21	-29	-29	-30	-34	-36	-39	-40	-45	-48	-50	-49	-50	-57	-69	-83	-81	-94	-94	-77	-69	-102	-157	-238	-979	-1000	-1022	-1045	-1706	-1989	-2192	-2269	-2385	-2465	-2497	-2498	-2529	-2583	-2592	-2598	-2600	-2601	-2602	-2604	-2635	-2609	-2604	-2601	-2600	-2596	-2580 
392	559	537	465	431	352	417	286	266	201	174	183	145	242	186	135	116	97	144	152	149	162	133	141	125	134	52	0	2	-1	-10	-10	-10	-10	13	16	16	18	19	16	10	5	0	-10	-1	-10	1	2	4	3	2	0	-19	-1	-18	-13	-13	-20	-29	-29	-30	-34	-37	-39	-40	-43	-46	-49	-51	-54	-56	-65	-76	-82	-68	-105	-58	-92	-200	-215	-236	-688	-911	-1024	-1945	-1966	-1986	-2009	-2226	-2366	-2497	-2573	-2591	-2603	-2614	-2664	-2690	-2694	-2696	-2704	-2708	-2715	-2713	-2715	-2712	-2710	-2706	-2701	-2691 
493	597	525	448	382	487	303	277	239	202	186	163	219	219	148	160	94	93	98	108	131	130	134	132	100	81	50	28	-10	-10	-10	-10	-10	7	10	16	21	20	19	18	12	6	0	0	-1	-1	-10	-10	-10	-10	0	-11	-1	-10	-19	-20	-20	-26	-29	-30	-30	-36	-39	-39	-42	-42	-43	-42	-46	-55	-70	-83	-109	-86	-111	-116	-210	-216	-529	-964	-986	-1018	-1059	-1600	-1965	-1981	-1996	-2106	-2211	-2421	-2577	-2639	-2678	-2711	-2724	-2736	-2749	-2756	-2758	-2765	-2795	-2771	-2770	-2774	-2773	-2769	-2759	-2746	-2730 
650	556	511	475	561	370	257	216	209	191	173	276	262	148	128	128	101	79	84	88	101	98	105	83	56	48	33	27	-10	12	-10	-10	-10	-10	-10	19	17	17	16	18	14	8	0	0	-1	-1	-1	-1	-10	-1	-7	-14	-7	-14	-19	-20	-29	-29	-30	-33	-36	-38	-40	-42	-41	-39	-29	-29	-41	-61	-78	-119	-143	-52	-123	-224	-236	-969	-985	-1003	-1377	-1489	-1627	-1972	-1969	-2088	-2050	-2075	-2230	-2414	-2578	-2599	-2787	-2792	-2796	-2797	-2798	-2799	-2788	-2803	-2805	-2805	-2809	-2805	-2801	-2786	-2776	-2769	-2762 
635	570	661	675	450	286	272	237	179	195	375	254	161	148	151	131	100	87	109	91	78	74	72	31	44	44	30	31	9	-10	-10	-10	-10	-10	-10	15	16	15	16	16	15	11	3	0	-1	-1	-1	-1	-1	-7	-13	-7	-12	-18	-20	-26	-29	-30	-34	-37	-40	-40	-40	-46	-44	-39	-23	-21	-45	-73	-108	-115	-69	-125	-200	-248	-987	-1007	-1400	-1608	-1960	-1949	-1950	-2152	-2203	-2248	-2219	-2269	-2326	-2440	-2535	-2601	-2790	-2797	-2839	-2801	-2802	-2803	-2810	-2842	-2850	-2846	-2839	-2831	-2819	-2806	-2805	-2806	-2809 
581	629	446	339	279	313	329	231	321	389	304	219	186	182	223	118	85	80	113	114	100	79	14	41	58	35	27	31	10	-10	-9	-10	-3	-1	16	15	15	15	16	16	16	13	7	0	-1	-1	-1	-5	-7	-1	-8	-12	-16	-20	-23	-28	-30	-34	-37	-39	-39	-39	-37	-49	-46	-45	-30	-31	-71	-99	-103	-66	-123	-171	-614	-998	-1188	-1573	-1930	-1964	-1991	-2248	-2301	-2388	-2541	-2456	-2543	-2547	-2482	-2575	-2597	-2614	-2748	-2801	-2985	-2919	-2875	-2864	-2883	-2904	-2909	-2901	-2890	-2879	-2868	-2860	-2869	-2882	-2893 
633	474	369	294	441	390	273	475	560	292	180	180	196	206	148	101	79	71	99	103	82	54	19	65	73	41	21	31	4	0	0	-1	-1	2	15	15	15	15	15	16	15	15	12	5	0	-5	-1	-5	-18	-19	-15	-17	-20	-20	-27	-30	-34	-36	-38	-38	-36	-35	-39	-45	-46	-44	-45	-71	-77	-100	-56	-120	-196	-252	-1002	-1316	-1682	-1960	-2107	-2269	-2329	-2413	-2568	-2590	-2588	-2588	-2665	-2585	-2595	-2600	-2682	-2731	-2759	-2806	-2989	-2991	-2950	-2935	-2948	-2956	-2960	-2949	-2932	-2922	-2923	-2929	-2945	-2990	-2994 
517	431	335	365	497	275	418	600	314	205	169	153	155	156	118	96	66	79	75	69	39	14	14	46	59	55	23	37	-10	0	-10	-1	-1	1	12	14	15	14	14	14	12	12	14	11	7	2	-12	-19	-11	-19	-19	-20	-20	-29	-30	-33	-36	-37	-40	-41	-39	-39	-39	-39	-51	-44	-68	-72	-91	-61	-122	-182	-249	-999	-1033	-1965	-1982	-2041	-2280	-2409	-2550	-2592	-2607	-2744	-2759	-2740	-2729	-2715	-2717	-2723	-2750	-2792	-2782	-2809	-2992	-2994	-2994	-2975	-2981	-2988	-2996	-2987	-2968	-2958	-2965	-2991	-2999	-3004	-3061 
423	351	327	483	283	300	600	585	226	182	137	126	118	126	98	76	69	98	88	45	3	12	43	56	58	55	28	26	0	0	-1	-1	-10	-1	-1	12	13	12	12	10	11	14	13	9	6	-1	-1	-1	-1	-19	-19	-23	-29	-29	-33	-37	-38	-40	-44	-48	-48	-46	-46	-51	-51	-67	-69	-70	-34	-123	-232	-254	-1002	-1933	-1966	-2042	-2260	-2350	-2460	-2579	-2666	-2710	-2738	-2774	-2799	-2801	-2790	-2777	-2769	-2772	-2782	-2787	-2807	-2811	-2994	-2997	-2998	-2999	-3000	-3000	-2999	-2998	-2985	-2973	-2977	-3002	-3035	-3081	-3118 
418	377	444	383	441	606	723	386	205	159	149	124	104	90	101	103	109	94	47	-10	15	-10	37	49	41	47	-10	20	-10	0	-1	-1	-10	2	0	7	-1	7	7	10	10	13	14	9	0	-1	-1	-1	-1	-19	-22	-25	-29	-30	-35	-38	-38	-42	-48	-48	-48	-49	-58	-71	-69	-52	-43	-21	-120	-186	-258	-1008	-1939	-1970	-2274	-2324	-2440	-2583	-2601	-2683	-2729	-2752	-2778	-2796	-2805	-2806	-2799	-2802	-2791	-2802	-2807	-2809	-2816	-2877	-2953	-2998	-3001	-3004	-3003	-3003	-3002	-2982	-3001	-3003	-3007	-3027	-3087	-3148	-3190 
423	440	577	321	487	797	547	212	176	166	142	114	93	87	93	95	90	73	35	5	27	17	15	30	38	46	-10	7	-10	0	0	-1	-1	1	2	5	5	4	9	12	15	17	14	11	8	4	-1	-20	-1	-19	-20	-29	-29	-30	-35	-38	-39	-43	-48	-48	-48	-60	-73	-74	-69	-98	-135	-119	-184	-496	-1008	-1943	-1975	-2255	-2346	-2527	-2595	-2605	-2725	-2755	-2792	-2778	-2773	-2803	-2805	-2811	-2805	-2805	-2805	-2817	-2822	-2826	-2859	-2916	-2973	-2982	-3005	-3094	-3007	-3007	-3006	-3006	-3012	-3047	-3070	-3107	-3165	-3220	-3267 
406	422	354	390	646	478	294	202	150	141	116	97	92	94	90	82	91	52	0	-10	-1	-10	-10	13	-10	27	32	0	8	-1	0	-9	-1	1	1	1	1	3	6	9	13	21	14	11	0	-1	-1	-1	-6	-14	-20	-29	-30	-30	-39	-37	-41	-42	-44	-42	-51	-70	-76	-93	-105	-171	-213	-233	-619	-1460	-1942	-1974	-2245	-2316	-2469	-2597	-2697	-2795	-2799	-2802	-2813	-2818	-2810	-2810	-2829	-2838	-2838	-2839	-2846	-2857	-2865	-2873	-2893	-2934	-2999	-2991	-3013	-3555	-3334	-3174	-3102	-3103	-3121	-3153	-3183	-3217	-3262	-3311	-3359 
351	366	542	629	402	223	178	162	142	128	136	132	123	121	108	87	79	29	41	-10	41	-10	-10	-6	-10	14	-1	18	29	0	0	-1	-1	-1	-1	0	-1	3	4	9	13	13	12	9	6	-1	-9	-1	-9	-17	-20	-29	-29	-34	-37	-40	-47	-46	-41	-37	-56	-74	-105	-122	-243	-219	-957	-983	-1014	-1946	-1975	-2219	-2297	-2430	-2596	-2608	-2796	-2802	-2805	-2808	-2860	-2884	-2875	-2882	-2894	-2896	-2895	-2896	-2900	-2904	-2910	-2923	-2935	-2950	-2984	-3011	-3021	-3565	-3566	-3366	-3245	-3246	-3254	-3270	-3294	-3327	-3377	-3438	-3483 
369	538	596	351	191	165	169	154	151	154	128	115	123	119	96	84	75	53	41	28	18	31	24	0	-10	-1	-10	0	15	17	0	-10	-1	-10	-1	-1	-1	-1	5	6	7	11	7	3	0	-1	-19	-1	-19	-19	-20	-29	-30	-34	-35	-40	-47	-47	-46	-46	-50	-61	-143	-249	-225	-961	-983	-1300	-1635	-1978	-2002	-2230	-2388	-2583	-2604	-2735	-2802	-2850	-2899	-2902	-2922	-2955	-2958	-2953	-2944	-2941	-2945	-2948	-2950	-2951	-2961	-2978	-2989	-2997	-3016	-3039	-3241	-3394	-3576	-3524	-3414	-3375	-3385	-3389	-3418	-3456	-3505	-3585	-3593 
402	606	397	199	160	157	152	234	160	138	112	94	91	101	96	83	74	50	58	53	35	23	18	25	39	-10	-10	-10	-10	-10	6	0	-10	-1	-10	-1	-1	1	4	5	6	9	5	0	-2	-1	-20	-8	-19	-20	-25	-29	-29	-31	-33	-40	-46	-48	-50	-42	-106	-113	-216	-230	-966	-984	-1305	-1587	-1969	-1997	-2078	-2322	-2491	-2597	-2701	-2799	-2805	-2900	-2903	-2957	-2972	-2999	-2999	-2997	-2974	-2974	-2997	-2998	-2999	-3000	-3001	-3036	-3024	-3004	-3057	-3118	-3213	-3220	-3523	-3585	-3544	-3547	-3516	-3497	-3516	-3590	-3598	-3602	-3684 
471	397	214	208	176	142	199	140	138	130	134	119	111	85	77	90	74	59	51	56	48	48	31	10	30	27	30	28	0	0	-1	-1	-10	-10	-10	-10	-1	-1	-1	4	6	6	-10	0	-10	-1	-1	-12	-19	-22	-26	-29	-29	-29	-31	-42	-48	-49	-50	-102	-111	-227	-231	-969	-987	-1176	-1470	-1956	-1984	-2188	-2261	-2373	-2581	-2601	-2697	-2800	-2897	-2909	-2996	-2999	-3002	-3003	-3040	-3002	-3001	-3000	-3001	-3002	-3047	-3096	-3142	-3097	-3098	-3104	-3147	-3207	-3216	-3404	-3589	-3629	-3605	-3596	-3597	-3599	-3602	-3605	-3693	-3722	-3794 
485	266	322	224	188	159	114	114	142	135	118	111	112	90	83	71	65	59	44	47	33	34	34	30	8	19	30	30	23	0	0	-1	-1	-10	-10	-10	-10	-1	0	2	10	6	0	-1	-1	-1	-8	-19	-19	-24	-28	-29	-29	-40	-49	-46	-47	-49	-100	-109	-199	-229	-788	-989	-1009	-1239	-1642	-1972	-1994	-2194	-2210	-2403	-2537	-2603	-2612	-2800	-2851	-2857	-2997	-3046	-3095	-3096	-3096	-3095	-3003	-3003	-3037	-3059	-3099	-3101	-3148	-3195	-3196	-3199	-3205	-3237	-3220	-3408	-3475	-3676	-3604	-3605	-3607	-3609	-3791	-3794	-3797	-3800	-3802 
309	268	293	186	145	138	127	104	116	119	127	98	93	101	85	71	60	42	54	39	30	30	33	31	-10	16	-10	30	27	23	13	-10	-10	-10	-10	-10	-10	-10	-10	-10	12	2	-1	-5	-1	-4	-13	-19	-20	-26	-29	-29	-28	-46	-45	-41	-40	-32	-106	-209	-226	-605	-986	-1068	-1116	-1445	-1769	-1913	-2004	-2139	-2213	-2374	-2530	-2610	-2692	-2799	-2806	-2857	-2907	-3021	-3097	-3190	-3189	-3143	-3097	-3062	-3096	-3100	-3103	-3106	-3199	-3202	-3282	-3389	-3354	-3400	-3407	-3484	-3602	-3652	-3731	-3614	-3796	-3798	-3800	-3803	-3805	-3883	-3915 
348	260	179	151	117	116	123	116	89	99	98	89	92	85	78	73	56	46	37	37	37	29	33	30	31	-10	-10	-10	-10	23	19	-2	-10	-10	-10	-10	-10	-10	-10	-10	2	0	-1	-1	-1	-10	-18	-20	-24	-29	-29	-34	-41	-45	-39	-26	-23	-103	-116	-224	-243	-984	-1005	-1221	-1447	-1704	-1986	-2001	-2013	-2205	-2217	-2423	-2562	-2628	-2724	-2799	-2805	-2869	-2907	-2981	-3100	-3193	-3193	-3192	-3100	-3093	-3103	-3130	-3197	-3186	-3206	-3281	-3354	-3401	-3406	-3591	-3597	-3603	-3609	-3674	-3799	-3802	-3864	-3902	-3903	-3904	-3926	-3995	-3997 
211	211	146	136	144	120	106	100	94	76	84	73	80	91	84	72	69	60	44	30	28	30	29	27	30	30	27	0	6	-1	12	-10	-10	-10	-10	-10	-10	-10	-10	8	0	-5	-1	-4	-11	-19	-19	-21	-25	-29	-29	-46	-45	-26	-19	-22	-10	-114	-221	-241	-983	-1004	-1329	-1541	-1802	-1985	-2137	-2104	-2203	-2212	-2358	-2517	-2623	-2704	-2796	-2801	-2896	-2901	-2908	-3006	-3048	-3197	-3236	-3195	-3103	-3098	-3110	-3165	-3205	-3207	-3306	-3400	-3406	-3503	-3598	-3664	-3789	-3793	-3798	-3802	-3864	-3989	-3992	-3978	-3983	-3988	-3998	-4001	-4002 
180	161	173	156	135	137	140	102	84	92	73	78	77	68	67	62	76	52	40	41	31	28	27	30	21	20	25	17	1	0	-10	-10	-10	-10	-10	-10	-10	-10	7	0	-3	-11	-3	-10	-19	-19	-21	-23	-25	-30	-44	-47	-34	-17	-19	-12	-113	-221	-961	-982	-1004	-1271	-1548	-1932	-1985	-2092	-2197	-2286	-2308	-2394	-2511	-2636	-2723	-2796	-2800	-2894	-2898	-2903	-2999	-3007	-3105	-3260	-3380	-3198	-3106	-3107	-3153	-3206	-3253	-3337	-3402	-3500	-3597	-3605	-3791	-3831	-3878	-3898	-3899	-3911	-3950	-3996	-4034	-4047	-4050	-4050	-4052	-4055	-4057 
174	202	207	150	146	166	127	95	110	93	83	91	97	88	72	77	66	45	36	35	31	31	30	25	17	9	21	25	17	13	-10	-10	-10	-10	-10	-10	-10	53	2	0	-6	-1	-6	-15	-19	-19	-22	-26	-29	-30	-44	-45	-40	-9	-5	-6	-129	-242	-983	-1159	-1279	-1456	-1758	-1985	-2183	-2197	-2323	-2392	-2464	-2546	-2657	-2791	-2798	-2802	-2862	-2879	-2901	-2939	-3002	-3071	-3138	-3293	-3384	-3201	-3162	-3160	-3207	-3270	-3337	-3403	-3591	-3600	-3703	-3796	-3873	-3988	-3983	-3976	-3984	-3991	-4000	-4010	-4046	-4062	-4093	-4097	-4098	-4100	-4104 
181	202	233	191	169	149	113	120	107	94	98	89	83	89	72	70	65	41	33	34	32	30	28	29	29	-10	9	-10	18	12	4	1	-10	-10	-10	-10	-10	1	-1	-1	-12	-1	-11	-19	-19	-20	-21	-27	-29	-29	-37	-50	-43	-30	-104	-121	-236	-622	-1005	-1276	-1446	-1647	-1847	-2001	-2197	-2331	-2407	-2492	-2569	-2659	-2792	-2800	-2895	-2887	-2901	-2904	-2917	-2949	-3004	-3103	-3201	-3386	-3387	-3205	-3182	-3210	-3278	-3344	-3406	-3506	-3600	-3790	-3798	-3901	-3992	-3994	-4059	-4055	-4054	-4053	-4056	-4063	-4071	-4100	-4100	-4135	-4102	-4104	-4147 
227	240	200	168	153	126	126	114	110	114	99	88	75	80	81	70	58	41	28	21	24	27	27	26	22	30	-10	7	-10	-10	-2	-10	-10	-10	-10	-10	-10	0	0	-1	-1	-8	-19	-19	-19	-17	-22	-29	-28	-26	-25	-40	-48	-51	-158	-225	-972	-1000	-1178	-1427	-1621	-1805	-1995	-2011	-2205	-2353	-2489	-2578	-2659	-2760	-2799	-2896	-2901	-2903	-2947	-2949	-2958	-2974	-3006	-3105	-3204	-3390	-3391	-3210	-3218	-3284	-3391	-3402	-3488	-3599	-3608	-3798	-3902	-3988	-4027	-4050	-4060	-4067	-4074	-4076	-4081	-4093	-4105	-4103	-4194	-4195	-4196	-4197	-4198 
210	205	198	188	148	125	105	109	128	115	109	89	75	73	63	71	63	34	26	0	23	-1	15	16	12	19	19	10	5	2	-10	-10	-10	-10	-10	-10	-10	0	-10	-1	-4	-13	-19	-20	-17	-17	-26	-27	-24	-7	-11	-41	-56	-43	-171	-569	-988	-1233	-1389	-1598	-1793	-1990	-2004	-2129	-2211	-2375	-2560	-2651	-2726	-2829	-2895	-2900	-2943	-2996	-2997	-2993	-3000	-3013	-3030	-3107	-3206	-3393	-3395	-3352	-3303	-3352	-3403	-3496	-3598	-3606	-3795	-3842	-3941	-3999	-4045	-4065	-4080	-4098	-4099	-4102	-4110	-4108	-4141	-4173	-4198	-4221	-4221	-4225	-4228 
196	195	181	169	142	136	127	130	145	127	103	89	90	82	72	70	61	37	34	34	32	26	21	20	9	3	3	8	-10	-10	-10	-10	-10	-10	-10	-10	0	0	-1	-1	-7	-15	-19	-20	-19	-25	-27	-27	-7	-1	-11	-46	-54	-120	-201	-977	-1126	-1322	-1552	-1774	-1989	-2001	-2193	-2205	-2272	-2454	-2632	-2716	-2761	-2804	-2899	-2904	-2971	-2999	-3034	-3042	-3041	-3053	-3063	-3110	-3209	-3486	-3459	-3422	-3365	-3409	-3464	-3598	-3605	-3724	-3802	-3916	-3997	-4006	-4062	-4083	-4088	-4100	-4101	-4126	-4141	-4163	-4199	-4200	-4217	-4226	-4234	-4244	-4254 
180	173	160	158	152	149	147	158	141	123	113	112	103	93	81	75	61	41	42	35	32	31	30	30	29	-10	11	-10	7	6	1	0	0	-1	-1	-1	-1	-1	-1	-1	-10	-19	-20	-23	-26	-28	-27	-11	-6	-15	-42	-48	-53	-130	-246	-994	-1282	-1496	-1769	-1987	-2002	-2193	-2203	-2308	-2428	-2567	-2702	-2751	-2804	-2808	-2903	-2948	-3000	-3038	-3094	-3090	-3092	-3098	-3104	-3143	-3213	-3490	-3494	-3433	-3407	-3411	-3545	-3606	-3714	-3801	-3896	-3995	-4001	-4058	-4084	-4102	-4103	-4105	-4133	-4162	-4192	-4200	-4204	-4231	-4244	-4254	-4265	-4274	-4280 
148	138	142	139	152	169	139	151	131	112	101	101	88	92	89	73	55	32	33	31	31	31	29	30	27	22	17	-10	-3	-10	2	0	0	-1	-1	-1	-1	-1	-1	-6	-13	-19	-22	-26	-29	-28	-18	-10	-11	-30	-41	-27	-136	-231	-981	-1167	-1542	-1827	-1985	-2091	-2194	-2205	-2350	-2460	-2585	-2690	-2799	-2805	-2809	-2903	-2906	-3000	-3004	-3096	-3098	-3124	-3120	-3102	-3107	-3206	-3350	-3494	-3529	-3411	-3413	-3598	-3606	-3743	-3801	-3912	-3994	-4000	-4055	-4098	-4100	-4114	-4132	-4148	-4167	-4198	-4212	-4236	-4252	-4265	-4273	-4279	-4297	-4299	-4300 
139	130	132	130	163	163	144	138	150	121	115	96	88	76	78	69	54	34	23	23	23	29	31	27	19	17	20	14	-10	-2	-10	0	-1	-1	-1	-1	-1	-2	-5	-11	-16	-20	-20	-27	-29	-28	-26	-1	-13	-28	-39	-1	-120	-397	-993	-1467	-1911	-1980	-2071	-2193	-2205	-2352	-2462	-2579	-2686	-2798	-2806	-2811	-2904	-2952	-3000	-3034	-3075	-3100	-3134	-3138	-3144	-3196	-3201	-3209	-3399	-3588	-3713	-3656	-3600	-3663	-3793	-3801	-3988	-3994	-3999	-4052	-4073	-4100	-4102	-4132	-4169	-4192	-4200	-4208	-4242	-4268	-4290	-4297	-4299	-4300	-4302	-4319	-4323 
163	149	122	140	150	145	127	114	123	111	121	109	100	84	68	66	52	34	31	30	22	23	30	18	17	18	21	17	5	-10	-10	-10	-10	0	2	-1	-8	-4	-8	-13	-19	-20	-20	-24	-32	-28	-26	-19	-10	-10	-23	-10	-126	-518	-936	-1591	-1967	-1991	-2189	-2275	-2350	-2449	-2567	-2682	-2795	-2804	-2856	-2906	-2969	-3014	-3095	-3098	-3104	-3140	-3158	-3163	-3170	-3201	-3205	-3213	-3371	-3411	-3657	-3764	-3757	-3794	-3801	-3927	-3994	-3999	-4047	-4075	-4090	-4102	-4104	-4156	-4197	-4212	-4228	-4245	-4266	-4297	-4309	-4315	-4304	-4320	-4330	-4338	-4345 
136	133	125	126	139	146	137	119	109	100	94	86	82	87	80	67	52	41	31	29	18	15	23	21	13	18	19	15	7	5	3	3	4	6	6	-3	-8	-2	-8	-14	-19	-20	-21	-21	-28	-28	-26	-23	-1	-10	-42	-35	-132	-617	-1089	-1616	-1975	-2089	-2197	-2331	-2425	-2530	-2652	-2792	-2800	-2898	-2949	-3000	-3004	-3097	-3100	-3143	-3156	-3199	-3203	-3215	-3205	-3206	-3390	-3347	-3366	-3414	-3601	-3698	-3824	-3936	-3987	-3993	-3999	-4003	-4097	-4099	-4108	-4124	-4151	-4198	-4202	-4233	-4254	-4275	-4298	-4304	-4324	-4332	-4339	-4345	-4353	-4358	-4363 
124	112	115	118	121	121	108	105	102	118	110	76	75	73	65	57	37	32	36	39	26	20	12	14	15	20	20	17	9	5	5	6	4	4	3	-1	-7	-1	-6	-13	-17	-19	-20	-20	-20	-19	-15	-15	-22	-23	-49	-56	-185	-986	-1230	-1660	-1982	-2005	-2202	-2354	-2483	-2587	-2703	-2796	-2834	-2901	-2997	-3048	-3098	-3148	-3196	-3198	-3203	-3209	-3263	-3287	-3308	-3392	-3396	-3403	-3418	-3512	-3605	-3703	-3755	-3866	-3992	-3998	-4038	-4096	-4103	-4122	-4138	-4157	-4178	-4201	-4225	-4254	-4278	-4298	-4314	-4337	-4355	-4366	-4364	-4367	-4372	-4377	-4381 
127	130	124	115	109	101	103	86	81	94	94	101	94	84	70	57	40	21	22	29	25	22	15	12	15	19	17	16	10	6	6	6	5	5	4	0	-6	-1	-6	-13	-18	-20	-20	-20	-20	-17	-10	-10	-23	-26	-53	-139	-240	-998	-1431	-1767	-1989	-2009	-2206	-2369	-2525	-2627	-2719	-2784	-2807	-2904	-3000	-3097	-3175	-3198	-3241	-3281	-3296	-3310	-3334	-3391	-3397	-3399	-3446	-3462	-3508	-3600	-3608	-3705	-3803	-3899	-3965	-4000	-4054	-4093	-4125	-4139	-4161	-4181	-4201	-4212	-4245	-4274	-4298	-4313	-4334	-4361	-4392	-4397	-4387	-4384	-4386	-4398	-4400 
141	146	130	118	107	107	105	97	85	77	69	69	66	79	70	53	46	33	22	16	16	12	16	12	10	15	17	15	11	7	6	5	5	5	1	0	-1	-1	-1	-19	-19	-20	-20	-21	-29	-29	-17	-21	-24	-28	-57	-224	-609	-1081	-1644	-1975	-1996	-2073	-2208	-2401	-2555	-2657	-2736	-2802	-2899	-2907	-3004	-3101	-3197	-3203	-3280	-3365	-3389	-3389	-3400	-3404	-3453	-3480	-3505	-3538	-3598	-3603	-3700	-3736	-3805	-3901	-3996	-4003	-4058	-4099	-4131	-4157	-4176	-4200	-4214	-4243	-4264	-4289	-4304	-4328	-4349	-4378	-4398	-4399	-4399	-4400	-4401	-4402	-4416 
156	172	140	121	123	121	109	114	107	100	86	89	98	69	62	40	33	33	31	36	28	22	14	6	9	10	10	9	8	6	5	4	3	2	-10	1	-10	-19	-1	-19	-19	-22	-24	-30	-36	-28	-24	-20	-21	-3	-62	-221	-737	-1229	-1956	-1983	-2181	-2196	-2289	-2445	-2581	-2684	-2765	-2834	-2902	-3000	-3008	-3135	-3201	-3207	-3329	-3397	-3439	-3454	-3475	-3498	-3522	-3544	-3596	-3599	-3603	-3698	-3703	-3780	-3806	-3902	-3998	-4035	-4062	-4103	-4136	-4169	-4199	-4204	-4240	-4268	-4286	-4303	-4321	-4341	-4361	-4381	-4396	-4400	-4408	-4413	-4417	-4426	-4436 
175	171	155	148	141	126	127	124	104	95	93	87	97	90	56	43	19	22	25	16	18	21	20	11	7	6	6	8	8	7	6	5	4	2	1	4	-1	-12	-20	-12	-19	-24	-28	-34	-29	-28	-12	-13	-17	-23	-65	-180	-982	-1023	-1758	-1987	-2184	-2198	-2344	-2479	-2614	-2722	-2800	-2898	-2906	-3004	-3102	-3199	-3244	-3311	-3397	-3404	-3464	-3495	-3532	-3579	-3597	-3599	-3602	-3695	-3698	-3725	-3798	-3803	-3899	-3994	-3999	-4046	-4071	-4103	-4142	-4178	-4201	-4226	-4257	-4280	-4300	-4315	-4336	-4353	-4370	-4386	-4394	-4401	-4412	-4425	-4435	-4446	-4455 
179	158	137	141	127	126	130	108	94	90	73	80	75	72	48	35	20	16	18	17	19	16	18	12	8	12	5	9	8	6	5	5	3	2	2	4	-1	-9	-1	-9	-19	-25	-27	-28	-27	-8	-10	-10	-27	-54	-18	-184	-985	-1366	-1962	-1988	-2141	-2238	-2355	-2505	-2658	-2795	-2834	-2932	-3001	-3099	-3151	-3204	-3316	-3394	-3405	-3466	-3508	-3542	-3571	-3600	-3637	-3695	-3698	-3701	-3748	-3797	-3802	-3897	-3934	-3997	-4036	-4064	-4099	-4106	-4159	-4199	-4204	-4245	-4276	-4299	-4303	-4329	-4347	-4361	-4375	-4388	-4400	-4402	-4418	-4434	-4447	-4460	-4472 
153	144	132	111	109	102	106	110	96	88	74	73	67	49	32	30	34	27	19	17	29	17	16	15	17	18	2	8	6	5	4	3	5	1	0	0	-1	-1	-1	-1	-19	-25	-27	-28	-18	-10	-10	-10	-44	-76	-63	-185	-986	-1420	-1767	-1988	-2006	-2202	-2368	-2541	-2724	-2828	-2943	-3042	-3096	-3194	-3201	-3291	-3396	-3427	-3475	-3512	-3550	-3598	-3602	-3605	-3673	-3700	-3742	-3759	-3799	-3802	-3864	-3901	-3969	-4001	-4051	-4090	-4110	-4145	-4197	-4200	-4228	-4259	-4296	-4300	-4322	-4341	-4356	-4368	-4380	-4389	-4400	-4410	-4426	-4441	-4455	-4469	-4484 
119	97	96	106	121	110	86	89	111	97	72	66	50	37	34	29	27	31	24	14	20	18	16	15	15	0	2	-1	5	-10	1	-10	0	-10	-10	-4	-10	-1	-19	-1	-19	-24	-28	-26	-20	-5	-10	-10	-37	-52	-115	-231	-987	-1339	-1690	-1987	-2187	-2203	-2375	-2588	-2790	-2892	-2962	-3092	-3191	-3199	-3290	-3395	-3401	-3498	-3539	-3567	-3600	-3603	-3658	-3700	-3702	-3747	-3798	-3800	-3803	-3862	-3901	-3947	-3999	-4029	-4067	-4098	-4129	-4164	-4197	-4222	-4242	-4273	-4298	-4318	-4333	-4350	-4363	-4374	-4385	-4391	-4401	-4414	-4431	-4445	-4459	-4475	-4490 
99	91	92	106	130	112	92	73	92	91	69	61	51	37	30	30	20	22	29	20	13	13	13	11	14	13	1	0	3	0	0	-1	-1	-10	-10	-10	-10	-1	-1	-1	-19	-19	-25	-27	-30	-15	-10	-10	-10	-52	-115	-233	-989	-1338	-1693	-1988	-2187	-2203	-2382	-2619	-2793	-2895	-2996	-3096	-3195	-3249	-3326	-3401	-3501	-3593	-3598	-3601	-3645	-3698	-3701	-3749	-3768	-3800	-3802	-3895	-3898	-3902	-3942	-3998	-4003	-4052	-4096	-4103	-4144	-4173	-4200	-4226	-4253	-4277	-4300	-4321	-4340	-4356	-4369	-4380	-4390	-4399	-4402	-4418	-4434	-4448	-4462	-4479	-4499 
107	108	119	100	94	109	119	82	68	70	66	62	48	32	21	17	15	18	20	17	15	12	9	8	6	5	-10	-10	-10	-10	-1	-1	-1	-1	-10	-10	-10	-1	-1	-3	-20	-19	-20	-27	-25	-30	-10	-10	-10	-54	-119	-237	-993	-1404	-1765	-1990	-2189	-2205	-2390	-2627	-2795	-2853	-2999	-3054	-3154	-3209	-3398	-3487	-3593	-3598	-3603	-3697	-3700	-3703	-3796	-3798	-3801	-3835	-3868	-3899	-3927	-3951	-3978	-4002	-4041	-4074	-4101	-4137	-4166	-4198	-4207	-4238	-4265	-4286	-4303	-4326	-4346	-4361	-4375	-4388	-4399	-4400	-4411	-4425	-4438	-4451	-4464	-4482	-4499 
98	107	116	112	73	103	97	90	83	63	54	49	43	35	28	29	13	13	17	17	15	14	9	5	5	5	2	3	4	3	2	2	2	1	-10	0	-10	-1	-1	-1	-1	-21	-16	-21	-31	-29	-10	-10	-29	-30	-155	-606	-1001	-1493	-1969	-1994	-2132	-2209	-2430	-2639	-2795	-2902	-3001	-3092	-3202	-3293	-3403	-3591	-3598	-3694	-3698	-3702	-3754	-3798	-3815	-3839	-3855	-3898	-3901	-3904	-3957	-3997	-4001	-4042	-4074	-4101	-4133	-4165	-4196	-4215	-4236	-4257	-4277	-4298	-4313	-4333	-4352	-4367	-4382	-4396	-4402	-4409	-4418	-4429	-4441	-4454	-4469	-4486	-4490 
112	123	119	82	73	118	91	90	71	72	59	46	40	33	29	20	11	12	16	17	15	16	9	8	13	15	6	5	2	-1	1	3	2	1	-10	1	-10	1	0	-1	-1	-1	-19	-20	-30	-20	-10	-10	-37	-70	-180	-977	-1174	-1570	-1976	-2000	-2198	-2321	-2507	-2676	-2799	-2903	-3006	-3110	-3205	-3326	-3407	-3595	-3693	-3698	-3751	-3797	-3800	-3832	-3852	-3873	-3900	-3903	-3996	-3998	-4000	-4002	-4052	-4095	-4101	-4133	-4165	-4195	-4219	-4245	-4266	-4282	-4292	-4302	-4323	-4341	-4358	-4374	-4389	-4399	-4407	-4413	-4422	-4433	-4445	-4460	-4475	-4493	-4502 
105	123	112	92	81	69	83	81	63	59	49	37	34	33	32	22	16	10	15	16	12	13	12	8	10	9	6	2	1	1	1	2	2	0	-10	1	-10	1	-10	0	-10	-1	-25	-19	-24	-25	-10	-10	-46	-87	-235	-990	-1290	-1699	-1939	-2008	-2206	-2414	-2595	-2781	-2803	-2928	-3006	-3197	-3209	-3400	-3491	-3599	-3697	-3752	-3798	-3823	-3851	-3881	-3900	-3903	-3950	-3998	-4014	-4039	-4045	-4061	-4098	-4111	-4136	-4159	-4194	-4215	-4237	-4265	-4290	-4298	-4301	-4313	-4330	-4349	-4367	-4384	-4399	-4400	-4410	-4418	-4427	-4439	-4452	-4467	-4483	-4503	-4505 
104	119	105	94	78	80	73	69	56	58	43	32	30	30	30	24	19	17	10	8	6	9	13	12	11	8	3	2	2	2	1	1	2	0	2	-1	1	-10	-10	-10	-10	-10	-10	-19	-28	-27	-10	-10	-54	-94	-244	-642	-1458	-1969	-2041	-2198	-2338	-2515	-2687	-2797	-2898	-3000	-3101	-3202	-3321	-3404	-3540	-3603	-3731	-3797	-3802	-3869	-3900	-3903	-3995	-3998	-4001	-4043	-4056	-4070	-4096	-4101	-4108	-4137	-4159	-4179	-4201	-4226	-4251	-4279	-4298	-4306	-4311	-4323	-4339	-4358	-4381	-4398	-4399	-4409	-4416	-4425	-4434	-4447	-4461	-4476	-4490	-4496	-4488 
109	102	87	75	77	66	58	58	57	59	36	38	34	22	26	24	16	17	16	11	8	7	6	8	8	6	2	0	0	1	3	0	2	2	4	0	-10	-10	-10	-10	-10	-10	-10	-9	-19	-26	-10	-10	-68	-47	-255	-1016	-1952	-2028	-2188	-2338	-2493	-2638	-2794	-2871	-2996	-3006	-3197	-3297	-3398	-3480	-3598	-3696	-3749	-3891	-3896	-3901	-3940	-3997	-4001	-4046	-4096	-4098	-4101	-4102	-4141	-4149	-4156	-4164	-4177	-4190	-4208	-4236	-4262	-4283	-4299	-4300	-4314	-4329	-4346	-4370	-4396	-4399	-4409	-4415	-4423	-4433	-4445	-4459	-4474	-4488	-4484	-4503	-4505 
71	68	72	71	70	66	46	45	44	41	37	34	34	32	27	20	17	15	15	11	14	13	7	2	0	0	1	-10	0	-10	-1	1	1	3	2	-10	-10	-10	-10	-10	-10	-10	-10	-10	-18	-26	-10	-10	-10	-92	-268	-1031	-1753	-2057	-2202	-2462	-2619	-2792	-2803	-2994	-3003	-3193	-3203	-3393	-3454	-3519	-3602	-3701	-3797	-3849	-3900	-3951	-3999	-4002	-4055	-4075	-4101	-4135	-4159	-4196	-4195	-4193	-4196	-4199	-4203	-4209	-4229	-4252	-4270	-4286	-4299	-4300	-4315	-4334	-4351	-4376	-4397	-4403	-4407	-4420	-4432	-4444	-4459	-4476	-4489	-4482	-4503	-4505	-4599 
66	46	56	68	69	57	51	37	32	38	34	34	36	32	32	25	17	9	9	6	7	11	9	8	-10	-10	-10	-10	-10	-10	0	-1	1	1	-10	-10	-10	-10	-10	-10	-10	-10	-10	-10	-15	-23	-10	-10	-72	-107	-556	-1335	-2046	-2194	-2415	-2589	-2790	-2802	-2944	-3002	-3123	-3200	-3318	-3397	-3489	-3532	-3616	-3704	-3800	-3897	-3903	-3999	-4034	-4097	-4100	-4103	-4105	-4198	-4199	-4221	-4240	-4240	-4230	-4229	-4229	-4238	-4253	-4267	-4279	-4290	-4300	-4301	-4316	-4337	-4354	-4375	-4392	-4401	-4407	-4421	-4446	-4462	-4474	-4479	-4481	-4504	-4507	-4600	-4604 
58	44	35	50	59	59	62	55	48	43	46	27	23	28	26	23	16	8	11	7	9	8	9	9	8	3	2	-10	0	-10	-1	-1	-1	-1	-1	-10	-10	-10	-10	-10	-10	-10	-8	-16	-8	-24	-10	-65	-90	-372	-1029	-1972	-2126	-2382	-2550	-2774	-2800	-2991	-3001	-3093	-3197	-3268	-3389	-3455	-3519	-3572	-3627	-3713	-3803	-3900	-3966	-4002	-4097	-4101	-4194	-4197	-4199	-4202	-4203	-4258	-4282	-4269	-4263	-4264	-4266	-4271	-4277	-4283	-4290	-4299	-4300	-4302	-4320	-4340	-4358	-4377	-4389	-4389	-4402	-4427	-4463	-4498	-4500	-4503	-4505	-4531	-4602	-4696	-4718 
56	38	36	33	49	61	59	54	48	45	48	47	33	28	23	21	18	16	17	14	11	7	8	8	8	6	2	2	-1	-1	-1	-1	-1	-1	-1	-10	-10	-10	-10	-10	-10	-16	-10	-15	-8	-37	-10	-85	-358	-1011	-1956	-2116	-2402	-2535	-2725	-2798	-2931	-2999	-3086	-3196	-3204	-3309	-3400	-3487	-3581	-3602	-3689	-3762	-3805	-3903	-4000	-4096	-4100	-4194	-4198	-4201	-4246	-4295	-4297	-4297	-4304	-4297	-4298	-4298	-4298	-4298	-4298	-4299	-4300	-4304	-4307	-4315	-4329	-4345	-4363	-4381	-4384	-4402	-4405	-4466	-4499	-4502	-4594	-4597	-4600	-4604	-4698	-4763	-4798 
43	30	38	33	41	49	46	47	47	38	38	42	30	36	33	28	22	13	14	15	12	8	4	5	7	5	-10	1	-10	-1	-1	-1	-2	-3	-1	-10	-10	-10	-10	-10	-10	-10	-10	-10	-21	-10	-82	-187	-764	-1945	-2166	-2473	-2633	-2743	-2798	-2989	-2998	-3007	-3136	-3202	-3209	-3397	-3404	-3521	-3599	-3676	-3794	-3802	-3899	-3906	-4003	-4099	-4150	-4198	-4229	-4255	-4297	-4310	-4324	-4325	-4327	-4328	-4332	-4334	-4332	-4328	-4321	-4316	-4313	-4314	-4319	-4328	-4339	-4355	-4371	-4378	-4402	-4405	-4463	-4501	-4594	-4597	-4600	-4644	-4696	-4701	-4766	-4801	-4895 
31	33	34	33	37	46	44	46	41	45	41	32	28	31	35	27	18	13	8	8	9	7	-10	0	-10	5	1	-10	0	-10	-1	-1	-2	-4	-3	-1	-6	-10	-5	-13	-12	-13	-15	-20	-44	-82	-183	-640	-1761	-2161	-2484	-2733	-2787	-2869	-2938	-2999	-3006	-3106	-3200	-3255	-3394	-3402	-3489	-3597	-3604	-3727	-3799	-3897	-3949	-4000	-4096	-4102	-4161	-4205	-4244	-4295	-4300	-4327	-4336	-4344	-4350	-4355	-4361	-4365	-4363	-4354	-4342	-4332	-4326	-4326	-4331	-4341	-4354	-4367	-4398	-4402	-4405	-4467	-4503	-4597	-4600	-4693	-4696	-4699	-4703	-4775	-4803	-4898	-4962 
46	28	37	36	32	41	30	34	31	32	32	31	23	26	30	30	25	20	15	10	9	9	7	0	1	-1	-10	-10	-10	-10	-1	-1	-2	-1	-2	-1	-10	-16	-15	-10	-4	-25	-48	-59	-76	-178	-635	-1488	-2100	-2444	-2690	-2776	-2943	-2988	-3002	-3008	-3137	-3200	-3206	-3331	-3399	-3466	-3529	-3601	-3680	-3797	-3850	-3947	-3999	-4095	-4101	-4158	-4181	-4208	-4263	-4301	-4326	-4347	-4358	-4366	-4372	-4379	-4387	-4397	-4390	-4378	-4362	-4347	-4340	-4339	-4346	-4358	-4366	-4400	-4402	-4458	-4499	-4503	-4598	-4692	-4696	-4721	-4742	-4748	-4800	-4837	-4900	-4995	-4999 
48	21	31	35	32	35	27	31	26	30	30	24	17	16	21	17	14	12	13	11	8	9	9	8	7	0	2	-1	2	2	-1	-1	-1	-1	-1	-10	-17	-6	-8	-19	-26	-50	-61	-125	-197	-635	-1485	-2097	-2409	-2765	-2787	-2910	-2980	-3004	-3091	-3139	-3202	-3388	-3393	-3399	-3405	-3493	-3599	-3606	-3737	-3803	-3931	-3998	-4095	-4100	-4195	-4200	-4203	-4252	-4283	-4313	-4345	-4368	-4378	-4384	-4389	-4397	-4399	-4400	-4399	-4397	-4380	-4362	-4354	-4355	-4361	-4377	-4401	-4404	-4498	-4531	-4595	-4599	-4648	-4698	-4732	-4747	-4760	-4802	-4807	-4902	-4997	-5001	-5066 
42	28	30	30	31	28	28	27	32	21	20	20	15	16	16	16	16	8	8	11	9	6	9	9	7	5	1	1	2	0	-1	-1	-1	-1	-18	-17	-25	-15	-8	-27	-17	-63	-127	-215	-999	-1638	-2097	-2362	-2765	-2878	-2984	-2996	-3005	-3109	-3198	-3220	-3315	-3396	-3401	-3406	-3411	-3597	-3604	-3708	-3800	-3898	-3966	-4093	-4100	-4196	-4290	-4294	-4297	-4300	-4303	-4352	-4367	-4381	-4399	-4399	-4400	-4405	-4408	-4408	-4406	-4399	-4398	-4379	-4370	-4368	-4399	-4402	-4451	-4500	-4594	-4598	-4637	-4696	-4700	-4704	-4766	-4801	-4805	-4854	-4904	-4998	-5003	-5096	-5099 
45	38	28	27	30	26	23	21	23	18	16	13	10	13	14	16	15	9	5	11	8	4	5	4	0	0	0	0	-1	-1	-1	-1	-1	-18	-16	-25	-18	-18	-26	-32	-62	-125	-213	-998	-1638	-2158	-2195	-2765	-2789	-2986	-2997	-3006	-3119	-3200	-3257	-3321	-3366	-3403	-3488	-3593	-3598	-3603	-3692	-3797	-3849	-3903	-4000	-4098	-4195	-4239	-4295	-4332	-4351	-4394	-4396	-4397	-4401	-4402	-4403	-4427	-4443	-4441	-4420	-4410	-4402	-4400	-4399	-4386	-4371	-4401	-4403	-4497	-4592	-4597	-4644	-4696	-4700	-4703	-4797	-4800	-4804	-4897	-4902	-4951	-5031	-5095	-5099	-5101	-5147 
39	39	40	30	22	18	15	16	17	17	18	16	8	8	9	12	14	12	4	9	0	0	-1	-1	-1	-1	-1	-1	-1	-1	-1	-1	-19	-23	-25	-10	-10	-10	-46	-57	-121	-239	-723	-1032	-2064	-2192	-2612	-2789	-2950	-2999	-3188	-3195	-3201	-3207	-3393	-3398	-3409	-3497	-3595	-3601	-3786	-3734	-3744	-3802	-3899	-3957	-4004	-4101	-4198	-4256	-4298	-4392	-4396	-4398	-4437	-4448	-4449	-4450	-4454	-4462	-4487	-4471	-4441	-4409	-4403	-4401	-4394	-4402	-4403	-4406	-4500	-4594	-4600	-4666	-4699	-4794	-4797	-4801	-4864	-4898	-4901	-4966	-5045	-5094	-5098	-5191	-5194	-5196	-5177 
30	33	30	31	30	20	11	13	16	16	16	13	8	8	10	13	15	0	2	-1	-2	-1	-1	-1	-5	-8	-8	-7	-4	-1	-4	-14	-19	-27	-1	-10	-10	-10	-50	-113	-230	-536	-1025	-2026	-2185	-2559	-2771	-2888	-2999	-3009	-3170	-3203	-3284	-3339	-3400	-3447	-3502	-3596	-3602	-3699	-3794	-3799	-3803	-3808	-3919	-4000	-4067	-4131	-4201	-4257	-4301	-4396	-4419	-4442	-4490	-4494	-4492	-4492	-4491	-4493	-4500	-4494	-4433	-4403	-4402	-4414	-4404	-4405	-4458	-4502	-4597	-4692	-4698	-4703	-4797	-4837	-4895	-4899	-4924	-4961	-5000	-5094	-5098	-5192	-5195	-5198	-5199	-5200	-5201 
33	30	30	31	33	26	15	12	15	15	13	9	8	7	9	12	6	-5	-3	-6	-3	-5	-7	-12	-19	-16	-18	-17	-13	-10	-13	-19	-30	-27	-10	-10	-29	-45	-89	-218	-613	-1015	-2018	-2178	-2511	-2780	-2883	-2980	-3014	-3110	-3207	-3277	-3391	-3401	-3423	-3494	-3562	-3602	-3609	-3741	-3802	-3892	-3990	-3938	-3998	-4004	-4100	-4147	-4205	-4260	-4303	-4398	-4402	-4455	-4498	-4524	-4529	-4525	-4518	-4506	-4495	-4470	-4406	-4405	-4406	-4451	-4497	-4500	-4504	-4599	-4652	-4700	-4796	-4800	-4895	-4899	-4903	-4963	-5000	-5004	-5098	-5102	-5195	-5198	-5243	-5242	-5241	-5239	-5236 
30	29	23	30	22	20	16	15	14	10	9	7	8	9	7	-1	-1	-1	-1	-5	-9	-12	-15	-19	-19	-19	-21	-18	-19	-17	-17	-19	-19	-27	-3	-4	-44	-99	-164	-329	-747	-2005	-2169	-2536	-2775	-2797	-2993	-3008	-3099	-3170	-3219	-3340	-3401	-3475	-3520	-3537	-3607	-3642	-3724	-3803	-3903	-3993	-3996	-3999	-4003	-4061	-4103	-4159	-4204	-4300	-4305	-4400	-4404	-4465	-4508	-4535	-4560	-4551	-4525	-4508	-4499	-4474	-4460	-4499	-4500	-4501	-4529	-4549	-4601	-4606	-4702	-4798	-4840	-4898	-4903	-4966	-5001	-5004	-5061	-5101	-5145	-5197	-5220	-5244	-5251	-5261	-5266	-5268	-5269 
32	29	19	17	14	15	19	17	17	16	10	7	9	8	-1	-5	-1	-5	-9	-13	-15	-19	-19	-22	-25	-24	-25	-25	-24	-18	-18	-19	-19	-27	-11	-39	-50	-141	-287	-502	-907	-2064	-2456	-2770	-2973	-2990	-3048	-3107	-3198	-3206	-3291	-3401	-3482	-3591	-3591	-3564	-3607	-3693	-3802	-3884	-3995	-4014	-4032	-4095	-4099	-4100	-4106	-4201	-4253	-4302	-4353	-4402	-4440	-4481	-4504	-4556	-4591	-4589	-4552	-4511	-4501	-4502	-4503	-4549	-4596	-4598	-4600	-4603	-4653	-4704	-4800	-4850	-4900	-4959	-5000	-5004	-5098	-5101	-5104	-5197	-5199	-5226	-5246	-5261	-5272	-5279	-5283	-5284	-5285 
31	28	20	15	11	12	18	20	17	15	9	7	7	0	-5	-1	-4	-11	-18	-19	-19	-20	-23	-26	-29	-28	-29	-24	-26	-27	-27	-28	-28	-28	-27	-50	-135	-277	-428	-767	-1053	-2089	-2759	-2788	-2987	-3074	-3100	-3165	-3203	-3212	-3400	-3407	-3592	-3597	-3641	-3607	-3614	-3801	-3808	-3995	-4001	-4050	-4099	-4192	-4105	-4168	-4201	-4242	-4300	-4340	-4399	-4404	-4466	-4503	-4551	-4598	-4616	-4596	-4594	-4504	-4504	-4506	-4598	-4601	-4654	-4696	-4698	-4701	-4751	-4802	-4852	-4947	-4997	-5047	-5078	-5100	-5104	-5197	-5199	-5201	-5238	-5253	-5267	-5279	-5286	-5290	-5292	-5293	-5293 
31	20	15	12	12	14	16	20	17	12	9	5	4	-3	-9	-3	-9	-15	-19	-20	-24	-26	-28	-31	-29	-28	-26	-20	-18	-18	-20	-26	-32	-41	-51	-113	-267	-444	-600	-942	-1976	-2379	-2774	-2935	-2995	-3006	-3190	-3202	-3274	-3398	-3429	-3536	-3599	-3669	-3691	-3795	-3801	-3808	-3934	-4001	-4097	-4101	-4195	-4206	-4247	-4242	-4297	-4300	-4339	-4398	-4403	-4459	-4503	-4551	-4599	-4690	-4631	-4596	-4566	-4507	-4558	-4601	-4605	-4698	-4701	-4794	-4797	-4801	-4805	-4901	-4951	-5060	-5094	-5098	-5102	-5156	-5199	-5215	-5238	-5247	-5262	-5276	-5285	-5291	-5299	-5300	-5300	-5300	-5300 
31	18	13	10	14	18	18	12	10	13	12	4	0	-7	-1	-7	-13	-19	-20	-24	-27	-29	-29	-28	-26	-21	-13	-7	-5	-7	-14	-28	-50	-68	-132	-261	-430	-567	-862	-1056	-2088	-2755	-2849	-2921	-3001	-3104	-3200	-3283	-3396	-3404	-3541	-3601	-3678	-3726	-3798	-3803	-3989	-3995	-4001	-4081	-4103	-4198	-4202	-4295	-4298	-4301	-4350	-4383	-4399	-4403	-4456	-4503	-4564	-4600	-4722	-4692	-4636	-4601	-4585	-4602	-4605	-4698	-4732	-4796	-4799	-4844	-4896	-4900	-4965	-5059	-5049	-5105	-5142	-5159	-5197	-5200	-5229	-5248	-5262	-5273	-5283	-5289	-5299	-5300	-5301	-5306	-5301	-5301	-5300 
16	12	8	7	15	15	9	9	8	12	8	0	-4	-11	-3	-11	-18	-19	-23	-26	-30	-29	-29	-23	-14	-7	-4	-5	-9	-15	-28	-51	-99	-149	-260	-437	-459	-631	-945	-1979	-2423	-2761	-2931	-2992	-3005	-3127	-3210	-3308	-3402	-3590	-3599	-3697	-3794	-3801	-3806	-3934	-3997	-4003	-4095	-4194	-4199	-4204	-4298	-4392	-4366	-4398	-4445	-4432	-4495	-4498	-4503	-4508	-4602	-4739	-4755	-4695	-4604	-4604	-4605	-4698	-4701	-4795	-4800	-4853	-4898	-4902	-4970	-5029	-5093	-5111	-5137	-5159	-5188	-5197	-5221	-5240	-5254	-5268	-5279	-5288	-5292	-5300	-5300	-5309	-5313	-5313	-5312	-5309	-5308 
8	7	8	9	6	-1	-7	-10	-10	-10	0	0	-1	-1	-8	-15	-19	-21	-23	-28	-29	-29	-23	-14	-7	-5	-6	-12	-19	-49	-51	-100	-165	-292	-390	-494	-610	-830	-1057	-2002	-2758	-2964	-2984	-2998	-3108	-3199	-3217	-3317	-3406	-3595	-3681	-3787	-3857	-3988	-3995	-4000	-4043	-4103	-4155	-4200	-4295	-4299	-4393	-4397	-4400	-4403	-4496	-4543	-4546	-4539	-4509	-4607	-4674	-4766	-4698	-4607	-4607	-4609	-4701	-4750	-4799	-4893	-4898	-4902	-4996	-5030	-5049	-5098	-5143	-5169	-5190	-5198	-5223	-5238	-5247	-5261	-5274	-5283	-5291	-5294	-5300	-5301	-5311	-5318	-5321	-5322	-5322	-5321	-5319 
11	9	0	0	-1	-1	-1	-1	-2	-3	-3	-2	-1	-6	-12	-18	-20	-20	-24	-29	-29	-26	-18	-13	-10	-11	-16	-19	-50	-53	-102	-197	-293	-391	-492	-599	-688	-971	-1667	-2265	-2778	-2979	-3092	-3101	-3195	-3203	-3288	-3361	-3409	-3599	-3702	-3796	-3905	-3995	-4054	-4008	-4139	-4198	-4202	-4252	-4301	-4305	-4381	-4401	-4495	-4498	-4501	-4561	-4597	-4600	-4604	-4654	-4761	-4828	-4701	-4610	-4701	-4704	-4798	-4847	-4896	-4943	-4995	-5000	-5004	-5098	-5191	-5194	-5195	-5199	-5224	-5240	-5247	-5259	-5270	-5280	-5288	-5294	-5295	-5300	-5301	-5310	-5319	-5323	-5324	-5325	-5325	-5325	-5325 
3	0	-3	-1	-3	-3	-4	-5	-6	-7	-7	-7	-9	-12	-16	-19	-22	-23	-27	-29	-29	-23	-18	-16	-17	-22	-28	-51	-54	-121	-198	-294	-392	-492	-597	-648	-869	-1055	-2219	-2826	-2975	-3082	-3098	-3152	-3201	-3208	-3396	-3404	-3501	-3603	-3705	-3807	-3925	-4001	-4189	-4195	-4245	-4264	-4299	-4303	-4396	-4399	-4386	-4405	-4498	-4531	-4552	-4584	-4603	-4696	-4700	-4749	-4871	-4750	-4712	-4704	-4706	-4801	-4850	-4900	-4994	-4998	-5042	-5071	-5101	-5194	-5197	-5239	-5238	-5242	-5250	-5260	-5270	-5278	-5286	-5292	-5297	-5297	-5300	-5300	-5309	-5317	-5323	-5325	-5326	-5327	-5328	-5329	-5329 
0	-5	-1	-5	-7	-9	-11	-13	-13	-14	-13	-13	-14	-16	-18	-20	-20	-29	-29	-29	-28	-22	-21	-22	-24	-31	-52	-85	-134	-199	-295	-391	-467	-593	-636	-821	-1001	-2090	-2612	-2920	-2990	-3127	-3177	-3203	-3267	-3395	-3402	-3501	-3597	-3613	-3721	-3807	-3997	-4074	-4194	-4291	-4313	-4391	-4395	-4398	-4401	-4403	-4405	-4408	-4501	-4541	-4600	-4604	-4676	-4747	-4796	-4903	-4889	-4739	-4709	-4709	-4803	-4852	-4947	-4997	-5042	-5094	-5097	-5102	-5196	-5199	-5235	-5242	-5254	-5264	-5271	-5278	-5285	-5290	-5294	-5297	-5298	-5300	-5300	-5308	-5316	-5321	-5325	-5327	-5328	-5329	-5330	-5330	-5330 
-7	-3	-7	-10	-14	-16	-19	-19	-19	-19	-19	-17	-19	-19	-19	-19	-20	-24	-29	-29	-28	-27	-28	-26	-50	-52	-92	-195	-223	-296	-410	-466	-498	-605	-766	-1025	-1245	-2128	-2768	-2981	-3138	-3151	-3202	-3272	-3337	-3401	-3484	-3595	-3632	-3702	-3800	-3810	-4000	-4010	-4199	-4296	-4356	-4397	-4436	-4456	-4495	-4497	-4498	-4500	-4504	-4557	-4603	-4654	-4704	-4798	-4891	-4952	-4828	-4803	-4804	-4828	-4899	-4994	-4999	-5093	-5097	-5120	-5142	-5172	-5199	-5233	-5246	-5262	-5273	-5280	-5285	-5290	-5293	-5299	-5300	-5302	-5301	-5302	-5307	-5315	-5320	-5324	-5327	-5329	-5330	-5330	-5331	-5332	-5332 
-3	-7	-11	-14	-18	-19	-19	-19	-20	-22	-20	-19	-19	-22	-20	-20	-20	-20	-26	-29	-30	-37	-36	-51	-53	-102	-196	-247	-297	-393	-489	-496	-597	-707	-888	-1160	-2067	-2750	-2786	-2993	-3142	-3201	-3209	-3314	-3402	-3408	-3595	-3601	-3704	-3796	-3804	-3910	-4003	-4112	-4203	-4300	-4396	-4401	-4495	-4497	-4499	-4545	-4502	-4504	-4551	-4601	-4607	-4703	-4799	-4848	-4896	-4896	-4807	-4838	-4899	-4947	-4996	-5001	-5095	-5098	-5138	-5150	-5167	-5199	-5219	-5245	-5263	-5276	-5284	-5290	-5293	-5296	-5300	-5301	-5304	-5306	-5306	-5310	-5315	-5320	-5324	-5327	-5329	-5330	-5331	-5332	-5333	-5333	-5333 
-5	-9	-12	-16	-19	-19	-21	-22	-23	-24	-25	-25	-29	-29	-29	-20	-20	-20	-21	-30	-30	-37	-44	-63	-121	-161	-293	-298	-394	-490	-541	-594	-696	-754	-963	-1245	-2027	-2765	-2797	-3000	-3196	-3206	-3306	-3401	-3407	-3594	-3601	-3677	-3794	-3801	-3896	-3998	-4070	-4196	-4205	-4303	-4399	-4404	-4498	-4536	-4593	-4595	-4596	-4598	-4601	-4606	-4701	-4752	-4803	-4898	-4900	-4901	-4901	-4903	-4995	-4998	-5039	-5096	-5099	-5139	-5154	-5172	-5199	-5204	-5238	-5260	-5275	-5286	-5292	-5295	-5300	-5300	-5305	-5309	-5311	-5313	-5315	-5317	-5320	-5324	-5326	-5330	-5331	-5333	-5334	-5334	-5334	-5334	-5332 
-6	-9	-13	-16	-18	-20	-22	-25	-27	-29	-29	-29	-29	-32	-29	-30	-25	-30	-30	-31	-39	-53	-83	-104	-199	-294	-299	-395	-445	-496	-593	-625	-706	-880	-1180	-1663	-2065	-2775	-2983	-3049	-3199	-3301	-3398	-3406	-3520	-3600	-3607	-3722	-3801	-3877	-3995	-4003	-4119	-4200	-4298	-4304	-4387	-4451	-4500	-4561	-4597	-4599	-4628	-4603	-4696	-4701	-4706	-4802	-4897	-4901	-4948	-4950	-4958	-4998	-5001	-5055	-5097	-5100	-5138	-5156	-5175	-5199	-5201	-5230	-5254	-5272	-5284	-5293	-5297	-5300	-5300	-5306	-5311	-5315	-5317	-5318	-5319	-5322	-5324	-5327	-5330	-5331	-5333	-5335	-5335	-5335	-5335	-5334	-5332 
-7	-10	-13	-16	-19	-20	-24	-29	-29	-30	-33	-34	-35	-37	-34	-31	-31	-34	-33	-52	-54	-102	-165	-200	-295	-300	-395	-401	-496	-592	-600	-701	-762	-1013	-1229	-1899	-2164	-2781	-2987	-3127	-3201	-3393	-3402	-3499	-3599	-3642	-3707	-3800	-3807	-3933	-4003	-4093	-4196	-4203	-4300	-4352	-4402	-4468	-4523	-4576	-4601	-4653	-4696	-4698	-4702	-4796	-4801	-4896	-4901	-4995	-4998	-5001	-5004	-5044	-5096	-5099	-5102	-5138	-5157	-5178	-5199	-5202	-5227	-5249	-5267	-5281	-5291	-5297	-5300	-5301	-5306	-5311	-5316	-5319	-5321	-5323	-5324	-5326	-5327	-5330	-5332	-5334	-5336	-5337	-5337	-5337	-5336	-5334	-5332 
-8	-11	-15	-19	-20	-23	-29	-30	-33	-37	-38	-38	-37	-42	-43	-51	-52	-53	-77	-101	-148	-129	-211	-295	-324	-396	-401	-496	-501	-598	-697	-711	-820	-1147	-1782	-2036	-2411	-2787	-2991	-3190	-3297	-3397	-3500	-3596	-3605	-3738	-3800	-3807	-3925	-4002	-4073	-4135	-4201	-4297	-4336	-4399	-4405	-4500	-4545	-4601	-4638	-4695	-4727	-4793	-4797	-4802	-4896	-4901	-4995	-4999	-5040	-5052	-5062	-5099	-5101	-5142	-5146	-5161	-5181	-5198	-5212	-5228	-5245	-5262	-5276	-5287	-5294	-5299	-5302	-5307	-5312	-5316	-5320	-5324	-5326	-5327	-5329	-5330	-5330	-5333	-5336	-5338	-5339	-5339	-5339	-5338	-5337	-5335	-5332 
-11	-14	-18	-19	-24	-26	-30	-30	-40	-45	-41	-51	-51	-51	-75	-76	-100	-102	-194	-196	-199	-237	-297	-301	-396	-401	-496	-501	-597	-694	-705	-812	-1059	-1222	-1840	-2130	-2488	-2791	-2994	-3193	-3388	-3401	-3592	-3655	-3790	-3798	-3879	-3994	-4001	-4084	-4138	-4199	-4206	-4302	-4398	-4431	-4498	-4503	-4598	-4603	-4669	-4705	-4758	-4797	-4835	-4897	-4901	-4995	-4999	-5049	-5096	-5098	-5101	-5102	-5194	-5176	-5176	-5182	-5200	-5211	-5230	-5245	-5259	-5273	-5286	-5294	-5299	-5300	-5306	-5312	-5316	-5320	-5324	-5328	-5329	-5330	-5330	-5333	-5335	-5336	-5339	-5339	-5340	-5340	-5339	-5339	-5337	-5336	-5333 
-15	-19	-19	-24	-29	-29	-31	-40	-44	-47	-51	-52	-74	-99	-101	-140	-195	-197	-217	-247	-295	-299	-340	-397	-433	-496	-501	-597	-693	-701	-804	-1003	-1207	-1535	-1896	-2199	-2513	-2795	-2997	-3195	-3330	-3404	-3596	-3706	-3791	-3881	-3985	-4033	-4097	-4193	-4199	-4205	-4301	-4397	-4402	-4497	-4541	-4597	-4601	-4655	-4700	-4737	-4766	-4802	-4860	-4901	-4995	-4999	-5042	-5070	-5099	-5102	-5194	-5196	-5197	-5197	-5198	-5201	-5207	-5228	-5245	-5258	-5270	-5284	-5296	-5299	-5300	-5306	-5311	-5316	-5320	-5323	-5327	-5329	-5332	-5332	-5334	-5336	-5337	-5339	-5340	-5341	-5341	-5341	-5340	-5339	-5338	-5336	-5333 
-19	-20	-25	-29	-31	-32	-38	-43	-51	-52	-76	-100	-101	-141	-195	-195	-219	-238	-253	-298	-301	-356	-398	-444	-496	-546	-596	-693	-700	-800	-934	-1134	-1388	-1786	-1935	-2204	-2521	-2796	-2997	-3195	-3314	-3405	-3597	-3707	-3794	-3904	-3988	-4080	-4160	-4199	-4295	-4300	-4396	-4402	-4497	-4592	-4596	-4600	-4650	-4698	-4728	-4760	-4801	-4805	-4900	-4949	-4998	-5035	-5059	-5086	-5102	-5104	-5174	-5198	-5213	-5215	-5218	-5221	-5231	-5246	-5259	-5271	-5281	-5291	-5299	-5304	-5307	-5311	-5315	-5319	-5323	-5327	-5329	-5332	-5334	-5335	-5336	-5338	-5339	-5340	-5341	-5342	-5342	-5341	-5341	-5340	-5338	-5336	-5334 
-24	-29	-30	-33	-35	-38	-41	-48	-53	-100	-118	-143	-161	-195	-224	-244	-254	-269	-300	-303	-354	-399	-436	-497	-539	-596	-647	-699	-769	-810	-1006	-1206	-1506	-1795	-2002	-2209	-2523	-2797	-2997	-3195	-3310	-3405	-3597	-3692	-3800	-3906	-4001	-4098	-4197	-4294	-4331	-4396	-4434	-4497	-4546	-4597	-4629	-4653	-4698	-4701	-4754	-4799	-4804	-4860	-4902	-4996	-5002	-5048	-5079	-5104	-5123	-5150	-5175	-5200	-5213	-5223	-5233	-5242	-5252	-5262	-5272	-5281	-5289	-5296	-5301	-5308	-5312	-5316	-5320	-5323	-5326	-5329	-5331	-5334	-5335	-5337	-5338	-5339	-5340	-5340	-5341	-5342	-5342	-5342	-5341	-5340	-5338	-5336	-5334 
-29	-33	-38	-39	-38	-42	-51	-68	-100	-103	-195	-195	-199	-228	-255	-294	-299	-302	-350	-398	-401	-405	-498	-554	-597	-602	-698	-716	-808	-918	-1109	-1218	-1780	-1803	-2008	-2242	-2530	-2797	-2996	-3194	-3306	-3404	-3597	-3609	-3801	-3906	-4008	-4111	-4200	-4297	-4394	-4426	-4495	-4538	-4596	-4601	-4651	-4695	-4701	-4753	-4798	-4802	-4859	-4900	-4943	-4998	-5036	-5064	-5099	-5122	-5151	-5176	-5189	-5205	-5218	-5237	-5247	-5256	-5265	-5275	-5285	-5293	-5299	-5301	-5307	-5313	-5317	-5321	-5324	-5327	-5329	-5330	-5333	-5335	-5337	-5338	-5339	-5339	-5340	-5341	-5342	-5343	-5342	-5342	-5341	-5339	-5338	-5335	-5330 
-31	-40	-45	-38	-51	-52	-99	-101	-144	-196	-199	-230	-242	-259	-298	-301	-348	-397	-400	-433	-466	-500	-593	-597	-636	-697	-736	-804	-818	-1014	-1213	-1772	-1791	-1992	-2193	-2275	-2536	-2797	-2996	-3193	-3305	-3403	-3596	-3679	-3800	-3905	-4010	-4111	-4201	-4299	-4395	-4402	-4498	-4555	-4598	-4641	-4674	-4700	-4749	-4798	-4833	-4895	-4899	-4906	-4961	-5001	-5046	-5096	-5102	-5137	-5163	-5184	-5196	-5208	-5229	-5248	-5258	-5268	-5277	-5288	-5298	-5299	-5304	-5309	-5314	-5318	-5322	-5325	-5328	-5330	-5331	-5333	-5335	-5337	-5338	-5339	-5339	-5340	-5341	-5341	-5342	-5343	-5343	-5341	-5340	-5339	-5337	-5334	-5330 
-42	-44	-37	-53	-54	-101	-148	-196	-198	-221	-242	-253	-273	-300	-302	-349	-399	-421	-471	-499	-502	-595	-599	-653	-697	-735	-801	-837	-1009	-1149	-1228	-1786	-1983	-2067	-2199	-2308	-2508	-2797	-2996	-3193	-3319	-3401	-3594	-3607	-3798	-3903	-4008	-4110	-4202	-4299	-4396	-4402	-4498	-4547	-4600	-4650	-4695	-4736	-4797	-4801	-4895	-4899	-4931	-4954	-4999	-5005	-5059	-5098	-5125	-5148	-5173	-5191	-5205	-5222	-5241	-5256	-5267	-5276	-5287	-5298	-5299	-5306	-5310	-5315	-5319	-5323	-5326	-5329	-5330	-5332	-5334	-5336	-5337	-5338	-5339	-5340	-5340	-5341	-5341	-5342	-5343	-5343	-5342	-5341	-5340	-5338	-5336	-5334	-5329 
-35	-38	-55	-57	-134	-165	-198	-200	-240	-254	-273	-297	-305	-328	-353	-399	-403	-461	-501	-594	-597	-601	-658	-697	-738	-800	-900	-915	-1024	-1225	-1905	-1891	-2069	-2189	-2204	-2311	-2509	-2797	-2995	-3191	-3386	-3400	-3532	-3605	-3797	-3901	-4003	-4108	-4201	-4299	-4359	-4402	-4498	-4504	-4600	-4646	-4699	-4751	-4799	-4803	-4898	-4936	-4961	-4997	-5000	-5037	-5067	-5102	-5130	-5158	-5179	-5200	-5215	-5234	-5249	-5262	-5273	-5282	-5292	-5299	-5304	-5308	-5314	-5318	-5323	-5326	-5329	-5332	-5333	-5335	-5336	-5337	-5338	-5339	-5339	-5340	-5340	-5341	-5342	-5342	-5343	-5343	-5342	-5341	-5340	-5338	-5336	-5334	-5329 
-53	-56	-104	-152	-201	-229	-241	-255	-264	-299	-301	-341	-354	-370	-400	-403	-455	-501	-550	-599	-653	-695	-699	-724	-800	-900	-913	-1021	-1221	-1783	-1922	-2176	-2187	-2197	-2265	-2313	-2509	-2795	-2992	-3189	-3203	-3397	-3590	-3659	-3795	-3890	-3998	-4108	-4200	-4298	-4353	-4403	-4459	-4504	-4600	-4605	-4700	-4749	-4774	-4805	-4899	-4946	-4993	-4999	-5029	-5055	-5078	-5102	-5133	-5167	-5184	-5201	-5220	-5241	-5254	-5266	-5277	-5286	-5293	-5300	-5301	-5311	-5317	-5322	-5326	-5329	-5332	-5334	-5335	-5336	-5337	-5338	-5339	-5339	-5340	-5340	-5341	-5342	-5342	-5343	-5343	-5343	-5342	-5341	-5339	-5338	-5336	-5334	-5329 
-87	-106	-200	-294	-295	-292	-294	-299	-301	-304	-396	-397	-398	-403	-432	-458	-501	-535	-600	-694	-697	-729	-761	-799	-808	-912	-1019	-1159	-1781	-1922	-2178	-2190	-2253	-2272	-2308	-2376	-2508	-2699	-2809	-3064	-3199	-3393	-3522	-3599	-3792	-3804	-3997	-4108	-4199	-4297	-4363	-4404	-4448	-4504	-4570	-4605	-4700	-4747	-4801	-4806	-4900	-4953	-4996	-5024	-5045	-5071	-5099	-5104	-5145	-5178	-5199	-5206	-5227	-5246	-5259	-5270	-5280	-5288	-5294	-5300	-5305	-5313	-5319	-5324	-5328	-5331	-5333	-5335	-5336	-5337	-5338	-5339	-5339	-5339	-5340	-5340	-5341	-5342	-5342	-5343	-5343	-5343	-5342	-5341	-5339	-5338	-5335	-5334	-5329 
-107	-232	-296	-390	-391	-355	-331	-303	-305	-398	-400	-436	-443	-457	-498	-501	-505	-599	-694	-698	-743	-790	-799	-815	-908	-1016	-1217	-1509	-1980	-2179	-2283	-2292	-2295	-2308	-2368	-2422	-2525	-2617	-2803	-2998	-3193	-3386	-3465	-3593	-3709	-3800	-3993	-4098	-4197	-4296	-4393	-4420	-4461	-4504	-4600	-4650	-4702	-4750	-4801	-4853	-4903	-4958	-4998	-5036	-5065	-5098	-5100	-5128	-5159	-5193	-5206	-5219	-5236	-5252	-5264	-5274	-5282	-5290	-5294	-5300	-5307	-5316	-5321	-5326	-5329	-5332	-5334	-5336	-5337	-5338	-5339	-5339	-5339	-5340	-5340	-5341	-5341	-5342	-5342	-5343	-5343	-5343	-5342	-5341	-5339	-5337	-5335	-5333	-5329 
-233	-343	-392	-394	-395	-395	-358	-347	-375	-402	-444	-472	-498	-500	-502	-547	-599	-603	-698	-754	-776	-799	-853	-905	-980	-1211	-1235	-1888	-2178	-2283	-2366	-2369	-2383	-2405	-2438	-2462	-2485	-2514	-2693	-2810	-3004	-3167	-3391	-3585	-3649	-3794	-3988	-4001	-4193	-4293	-4349	-4400	-4497	-4552	-4601	-4697	-4731	-4766	-4803	-4898	-4929	-4963	-5001	-5043	-5093	-5099	-5127	-5150	-5179	-5198	-5216	-5229	-5244	-5257	-5269	-5278	-5286	-5292	-5299	-5301	-5310	-5318	-5323	-5327	-5330	-5333	-5335	-5337	-5338	-5339	-5339	-5339	-5339	-5340	-5340	-5341	-5342	-5342	-5342	-5342	-5343	-5342	-5341	-5340	-5339	-5337	-5334	-5332	-5328 
-359	-393	-396	-398	-398	-399	-399	-401	-404	-464	-500	-500	-547	-594	-596	-599	-603	-697	-791	-794	-798	-837	-902	-951	-1023	-1227	-1852	-2115	-2282	-2295	-2385	-2401	-2448	-2479	-2483	-2490	-2501	-2509	-2519	-2801	-2814	-3037	-3171	-3395	-3531	-3663	-3801	-3995	-4125	-4229	-4299	-4399	-4497	-4595	-4647	-4698	-4736	-4800	-4842	-4900	-4943	-4972	-5005	-5049	-5095	-5125	-5146	-5173	-5197	-5201	-5221	-5236	-5251	-5263	-5273	-5282	-5290	-5296	-5300	-5307	-5313	-5319	-5324	-5329	-5332	-5334	-5336	-5337	-5338	-5339	-5339	-5339	-5339	-5340	-5340	-5341	-5342	-5342	-5342	-5342	-5342	-5342	-5341	-5339	-5338	-5335	-5333	-5329	-5326 
-394	-398	-400	-401	-402	-402	-403	-405	-498	-500	-562	-594	-595	-596	-599	-602	-668	-730	-793	-796	-800	-898	-1000	-1017	-1218	-1783	-1988	-2235	-2295	-2411	-2445	-2483	-2497	-2528	-2528	-2509	-2484	-2513	-2572	-2656	-2805	-2861	-3039	-3159	-3219	-3505	-3791	-3986	-4001	-4194	-4295	-4396	-4496	-4596	-4694	-4701	-4707	-4802	-4866	-4907	-4953	-4977	-5008	-5048	-5095	-5132	-5163	-5192	-5206	-5215	-5228	-5243	-5257	-5269	-5278	-5286	-5293	-5299	-5304	-5310	-5316	-5321	-5326	-5329	-5333	-5335	-5336	-5338	-5339	-5339	-5339	-5339	-5340	-5340	-5340	-5341	-5342	-5342	-5342	-5342	-5342	-5341	-5340	-5339	-5337	-5334	-5330	-5329	-5324 
-417	-401	-403	-404	-405	-450	-497	-499	-532	-594	-584	-599	-603	-603	-602	-605	-698	-792	-795	-798	-803	-948	-1009	-1181	-1233	-1919	-2213	-2292	-2413	-2493	-2497	-2539	-2566	-2569	-2559	-2544	-2538	-2570	-2627	-2678	-2708	-2762	-2878	-3042	-3177	-3403	-3599	-3795	-3991	-4101	-4199	-4347	-4456	-4535	-4665	-4792	-4799	-4838	-4899	-4933	-4967	-4985	-5005	-5049	-5099	-5136	-5173	-5196	-5214	-5222	-5236	-5250	-5263	-5274	-5282	-5289	-5295	-5300	-5306	-5312	-5317	-5322	-5326	-5330	-5333	-5335	-5337	-5338	-5339	-5339	-5339	-5340	-5340	-5340	-5341	-5341	-5342	-5342	-5342	-5342	-5341	-5341	-5340	-5338	-5336	-5333	-5330	-5326	-5322 
-454	-404	-447	-456	-497	-499	-501	-593	-550	-597	-598	-597	-591	-603	-630	-697	-730	-793	-796	-800	-897	-969	-1079	-1223	-1789	-2029	-2285	-2409	-2493	-2500	-2568	-2592	-2616	-2628	-2621	-2608	-2602	-2619	-2646	-2662	-2688	-2711	-2810	-2881	-3014	-3180	-3466	-3603	-3860	-3996	-4191	-4296	-4400	-4503	-4664	-4793	-4854	-4896	-4902	-4953	-4992	-5001	-5015	-5055	-5101	-5131	-5166	-5198	-5216	-5228	-5242	-5256	-5268	-5278	-5286	-5292	-5296	-5301	-5306	-5313	-5318	-5322	-5326	-5330	-5332	-5335	-5336	-5338	-5338	-5339	-5339	-5340	-5340	-5340	-5341	-5341	-5342	-5342	-5342	-5342	-5341	-5340	-5339	-5337	-5335	-5333	-5329	-5326	-5322 
-495	-496	-497	-498	-499	-528	-594	-596	-598	-599	-599	-597	-600	-603	-657	-698	-751	-795	-798	-803	-901	-1006	-1208	-1236	-1893	-2231	-2360	-2490	-2500	-2579	-2612	-2645	-2660	-2667	-2696	-2650	-2640	-2655	-2701	-2703	-2706	-2799	-2805	-2813	-2915	-3063	-3214	-3501	-3608	-3865	-4002	-4198	-4394	-4530	-4723	-4793	-4891	-4897	-4935	-4964	-4999	-5015	-5038	-5065	-5097	-5117	-5166	-5199	-5218	-5233	-5247	-5261	-5273	-5282	-5289	-5295	-5298	-5301	-5307	-5314	-5318	-5323	-5326	-5330	-5332	-5335	-5336	-5337	-5338	-5339	-5340	-5340	-5340	-5341	-5341	-5341	-5342	-5342	-5342	-5341	-5341	-5340	-5339	-5337	-5335	-5332	-5329	-5325	-5321 
-500	-498	-499	-500	-502	-504	-596	-598	-599	-600	-600	-601	-602	-604	-697	-714	-754	-797	-801	-897	-908	-1014	-1219	-1596	-1995	-2287	-2418	-2497	-2577	-2618	-2654	-2682	-2706	-2706	-2704	-2704	-2705	-2707	-2769	-2801	-2862	-2923	-2956	-2946	-2909	-3010	-3131	-3399	-3506	-3703	-3901	-4099	-4207	-4434	-4599	-4791	-4890	-4936	-4942	-4979	-5003	-5033	-5058	-5078	-5106	-5131	-5167	-5200	-5219	-5236	-5251	-5265	-5276	-5285	-5292	-5296	-5300	-5304	-5311	-5316	-5320	-5324	-5327	-5330	-5332	-5334	-5336	-5337	-5338	-5339	-5340	-5340	-5341	-5341	-5341	-5342	-5342	-5342	-5342	-5341	-5340	-5339	-5338	-5336	-5334	-5332	-5329	-5325	-5322 
-501	-500	-511	-504	-498	-505	-555	-599	-599	-600	-601	-602	-603	-653	-697	-732	-762	-799	-895	-906	-1005	-1113	-1229	-1888	-2050	-2326	-2492	-2506	-2607	-2654	-2699	-2706	-2742	-2750	-2770	-2802	-2834	-2851	-2929	-2960	-2991	-2994	-2998	-2968	-2997	-3005	-3045	-3179	-3405	-3602	-3800	-3999	-4198	-4396	-4533	-4787	-4858	-4927	-4952	-4992	-5023	-5044	-5068	-5085	-5107	-5142	-5177	-5200	-5220	-5238	-5254	-5268	-5281	-5290	-5297	-5300	-5302	-5308	-5314	-5318	-5322	-5325	-5327	-5330	-5332	-5334	-5336	-5337	-5338	-5339	-5340	-5340	-5341	-5341	-5342	-5342	-5342	-5342	-5342	-5341	-5340	-5339	-5338	-5336	-5334	-5332	-5329	-5326	-5322 
-514	-504	-497	-490	-504	-506	-565	-593	-600	-601	-602	-604	-647	-696	-711	-745	-793	-801	-898	-938	-1013	-1213	-1552	-1944	-2195	-2485	-2499	-2597	-2639	-2686	-2707	-2746	-2772	-2797	-2807	-2900	-2948	-3025	-3088	-3089	-3090	-3078	-3054	-3021	-2999	-2979	-3010	-3066	-3215	-3471	-3699	-3928	-4188	-4207	-4405	-4600	-4793	-4894	-4974	-4991	-5028	-5050	-5074	-5098	-5120	-5149	-5177	-5200	-5220	-5238	-5255	-5270	-5285	-5296	-5299	-5302	-5307	-5313	-5317	-5321	-5324	-5327	-5329	-5330	-5332	-5334	-5336	-5337	-5339	-5339	-5340	-5341	-5341	-5342	-5342	-5342	-5342	-5342	-5341	-5341	-5340	-5339	-5338	-5336	-5334	-5332	-5329	-5326	-5323 
-500	-507	-508	-510	-506	-597	-599	-600	-601	-602	-604	-649	-697	-724	-747	-774	-798	-832	-901	-1003	-1020	-1223	-1791	-2090	-2320	-2493	-2596	-2630	-2696	-2707	-2748	-2778	-2806	-2840	-2949	-2953	-3061	-3094	-3132	-3136	-3135	-3131	-3108	-3087	-3046	-3027	-3023	-3106	-3177	-3402	-3509	-3708	-3937	-4197	-4306	-4503	-4728	-4890	-4989	-5017	-5030	-5049	-5076	-5099	-5126	-5151	-5177	-5200	-5220	-5238	-5256	-5272	-5288	-5299	-5305	-5307	-5312	-5317	-5321	-5324	-5326	-5328	-5330	-5331	-5333	-5335	-5336	-5337	-5339	-5340	-5340	-5341	-5341	-5342	-5342	-5342	-5342	-5342	-5341	-5341	-5340	-5339	-5338	-5336	-5334	-5332	-5329	-5326	-5323 
-506	-505	-535	-544	-569	-599	-600	-601	-602	-604	-649	-699	-730	-760	-795	-797	-799	-844	-903	-1007	-1208	-1233	-1862	-2130	-2484	-2501	-2617	-2668	-2706	-2757	-2794	-2808	-2903	-2953	-3063	-3097	-3120	-3144	-3143	-3135	-3135	-3131	-3133	-3100	-3099	-3099	-3091	-3090	-3113	-3237	-3410	-3607	-3866	-4006	-4205	-4404	-4600	-4794	-4926	-4994	-5024	-5041	-5073	-5099	-5121	-5148	-5177	-5199	-5216	-5234	-5254	-5274	-5291	-5299	-5307	-5311	-5316	-5320	-5324	-5326	-5328	-5329	-5331	-5332	-5334	-5335	-5336	-5338	-5339	-5340	-5340	-5341	-5341	-5342	-5342	-5342	-5342	-5342	-5341	-5340	-5340	-5338	-5337	-5336	-5334	-5332	-5329	-5326	-5323 
-596	-598	-569	-578	-583	-590	-603	-604	-639	-659	-700	-733	-774	-797	-798	-844	-846	-895	-905	-1012	-1215	-1542	-1991	-2247	-2491	-2613	-2650	-2702	-2748	-2799	-2838	-2950	-3001	-3096	-3126	-3154	-3198	-3199	-3201	-3201	-3201	-3200	-3200	-3198	-3197	-3151	-3150	-3167	-3141	-3210	-3313	-3508	-3796	-3995	-4194	-4394	-4524	-4607	-4830	-4960	-5020	-5035	-5067	-5098	-5104	-5140	-5174	-5198	-5202	-5227	-5250	-5271	-5297	-5299	-5309	-5314	-5320	-5324	-5326	-5328	-5329	-5330	-5331	-5333	-5334	-5335	-5336	-5338	-5339	-5340	-5340	-5341	-5341	-5342	-5342	-5342	-5342	-5342	-5341	-5340	-5339	-5338	-5337	-5335	-5333	-5330	-5329	-5325	-5322 
-600	-602	-603	-605	-606	-607	-607	-698	-699	-703	-740	-777	-799	-845	-846	-848	-859	-896	-997	-1016	-1222	-1643	-1999	-2311	-2491	-2621	-2696	-2737	-2802	-2839	-2951	-3047	-3144	-3194	-3198	-3205	-3211	-3271	-3290	-3295	-3293	-3298	-3388	-3388	-3387	-3386	-3384	-3382	-3260	-3209	-3218	-3410	-3546	-3745	-4064	-4293	-4401	-4598	-4793	-4896	-4995	-5032	-5056	-5079	-5102	-5134	-5167	-5186	-5200	-5217	-5240	-5264	-5287	-5299	-5310	-5316	-5322	-5326	-5328	-5330	-5330	-5330	-5331	-5333	-5334	-5335	-5336	-5338	-5339	-5340	-5340	-5341	-5341	-5342	-5342	-5342	-5342	-5342	-5341	-5340	-5339	-5338	-5336	-5334	-5332	-5329	-5327	-5323	-5321 
-604	-696	-698	-700	-701	-701	-702	-718	-745	-763	-798	-800	-847	-870	-870	-865	-860	-897	-999	-1081	-1229	-1798	-2078	-2479	-2498	-2638	-2700	-2798	-2807	-2905	-3049	-3146	-3197	-3255	-3275	-3285	-3304	-3337	-3384	-3388	-3390	-3413	-3396	-3459	-3459	-3453	-3452	-3382	-3389	-3390	-3317	-3361	-3419	-3676	-3904	-4192	-4391	-4408	-4605	-4800	-4946	-5025	-5043	-5067	-5101	-5125	-5156	-5177	-5198	-5201	-5229	-5254	-5278	-5297	-5308	-5316	-5322	-5327	-5329	-5330	-5330	-5330	-5331	-5332	-5334	-5335	-5336	-5337	-5339	-5339	-5340	-5341	-5342	-5342	-5342	-5342	-5342	-5342	-5341	-5340	-5339	-5338	-5336	-5333	-5330	-5329	-5325	-5322	-5320 
-699	-731	-753	-761	-795	-796	-764	-770	-793	-800	-825	-848	-850	-895	-894	-871	-867	-898	-1001	-1134	-1233	-1804	-2100	-2483	-2600	-2693	-2746	-2803	-2903	-3003	-3147	-3199	-3274	-3308	-3328	-3339	-3400	-3405	-3454	-3487	-3495	-3501	-3502	-3507	-3507	-3502	-3504	-3496	-3466	-3428	-3387	-3405	-3412	-3518	-3804	-4002	-4199	-4397	-4529	-4702	-4896	-4995	-5035	-5055	-5081	-5106	-5141	-5164	-5179	-5199	-5216	-5244	-5269	-5289	-5301	-5313	-5321	-5326	-5329	-5330	-5330	-5330	-5330	-5332	-5334	-5335	-5336	-5337	-5338	-5339	-5340	-5341	-5342	-5342	-5342	-5342	-5342	-5342	-5341	-5340	-5339	-5337	-5335	-5332	-5330	-5327	-5324	-5320	-5319 
